x y z nx ny nz state
1300.98 890.661 1748.55 -0.237532 0.575662 0.782427 1
1299.77 902.186 1746.19 0.119716 -0.764842 0.632997 1
1300.8 873.865 1745.84 0.761591 -0.335995 -0.554153 1
1301.21 886.793 1746.93 -0.8984 -0.364279 0.245315 1
1301.17 879.15 1745.63 -0.875006 -0.427309 0.227532 1
1300.57 872.066 1747.78 -0.53665 -0.401587 0.742115 1
1301.02 891.242 1747.97 -0.0416074 0.000359067 -0.999134 1
1299.79 866.964 1746.04 -0.198535 0.19832 0.959819 1
1299.04 905.968 1746.19 -0.310331 -0.600208 -0.737188 1
1300.98 876.36 1747.63 0.799409 0.230164 0.554951 1
1300.56 873.688 1748.4 0.142556 -0.859629 -0.490629 1
1301.24 881.43 1747.07 0.231409 -0.604512 -0.762243 1
1300.5 878.916 1749.17 0.679432 -0.0558046 0.731613 1
1299.96 867.435 1745.97 -0.370477 -0.339639 -0.864519 1
1295.17 900.086 1748.74 -0.0465683 0.845361 0.532162 1
1300.93 875.492 1747.13 -0.769903 -0.424671 -0.476344 1
1301.11 880.658 1746.94 0.22776 -0.821428 0.52286 1
1301.08 880.735 1747.33 0.527223 0.298207 0.795681 1
1300.04 867.676 1746.88 -0.747908 0.650862 -0.130431 1
1300.47 896.539 1747.34 -0.295203 0.881615 0.368254 2
1299.47 902.249 1748.82 -0.066879 0.80449 -0.590189 1
1300.47 895.162 1748.36 0.468437 0.579935 0.666515 1
1301.2 887.632 1747.74 -0.239563 -0.952227 0.189404 1
1296.35 891.636 1748.4 0.256615 -0.0429897 -0.965557 1
1299.96 866.874 1745.84 0.0953445 0.752759 0.651355 1
1301.13 879.926 1748.09 0.573015 0.803467 -0.161536 1
1301.19 878.968 1745.4 -0.0818084 -0.911906 0.402163 1
1301.19 880.58 1746.66 -0.38237 0.868139 0.316431 1
1299.68 872.19 1749.2 0.436108 0.400832 0.805694 1
1300.98 883.377 1748.83 0.145323 0.923053 0.356166 1
1299.98 876.479 1749.13 -0.883692 0.41276 0.22072 1
1300.06 868.083 1747.6 0.511593 0.631874 0.582244 1
1299.49 902.12 1748.23 -0.742893 -0.603351 0.289962 1
1299.8 865.959 1746.04 -0.0984204 0.78069 -0.617119 1
1300.43 870.213 1745.84 -0.131552 -0.964641 0.228388 1
1301.09 889.681 1747.1 0.777727 0.598043 -0.19361 1
1301.09 877.939 1746.74 -0.777017 0.562816 -0.281926 1
1299.89 900.636 1748.78 -0.92486 -0.36738 -0.0983183 1
1300.37 872.887 1748.35 0.0605359 0.671431 -0.738591 1
1300.99 884.814 1748.48 -0.635755 0.169991 -0.75294 1
1300.63 872.124 1745.52 -0.86559 -0.15984 -0.474557 1
1300.76 873.3 1745.94 -0.537558 0.672873 -0.508205 1
1301.06 880.637 1747.01 -0.505036 -0.847746 -0.162067 1
1300.09 899.281 1748.68 -0.763119 0.0475121 -0.644509 1
1300.3 880.866 1749.25 0.746125 0.663382 0.0567613 1
1296.32 891.879 1748.36 -0.0806814 -0.840336 -0.536028 1
1300.93 892.615 1747.09 0.083235 0.934759 0.345396 1
1296.38 887.158 1747.16 0.699455 -0.23905 -0.673511 1
1299.44 863.952 1747.08 -0.00294322 0.0124933 -0.999918 1
1301.25 880.871 1745.91 0.0422854 0.709455 -0.703481 1
1300.67 881.754 1749.21 0.7349 0.504192 -0.453555 1
1300.69 872.676 1745.39 -0.707633 0.241202 0.664136 1
1299.92 866.901 1747.24 -0.515251 -0.316243 0.796559 1
1300.56 872.991 1748.23 -0.21756 -0.960927 0.171137 1
1299.98 898.993 1749.24 -0.851029 -0.506802 -0.137481 1
1300.92 892.979 1746.02 0.00283271 0.180815 0.983513 1
1299.94 869.725 1748.5 0.980113 0.0977855 0.172674 1
1301.16 888.911 1745.96 0.684093 -0.509168 -0.522269 1
1301.07 877.127 1746.91 -0.075657 -0.542933 0.836361 1
1300.09 882.743 1749.45 -0.452382 0.658903 0.600996 1
1301.08 890.386 1747.85 0.0135384 -0.389606 0.920882 1
1299.41 902.296 1749.03 -0.258805 0.175472 -0.949858 1
1295.92 895.119 1748.44 0.906872 0.0345212 0.41999 1
1296.03 892.934 1746.83 -0.00608072 0.72417 0.689595 1
1294.22 907.184 1745.77 0.71541 0.226751 -0.660888 1
1299.6 864.889 1745.47 0.59231 -0.496562 0.634504 1
1300.98 881.129 1746.64 -0.0161004 -0.483058 0.87544 1
1299.67 865.586 1747.61 -0.148727 0.523772 0.838775 1
1300.68 892.751 1747.36 0.735325 0.596463 -0.321759 1
1300.48 871.01 1747.67 -0.092155 -0.973005 -0.211586 1
1301.05 876.972 1745.36 0.787704 -0.615999 0.00817341 1
1300.92 875.771 1746.59 0.944875 -0.316907 -0.0823541 1
1301.05 889.095 1748.47 -0.914088 -0.396016 0.0872647 1
1299.13 862.281 1745.55 0.063613 -0.153469 -0.986104 1
1301.22 880.519 1747.41 -0.0519366 -0.676904 0.734236 1
1295.9 895.22 1748.75 0.879963 -0.159041 -0.447628 1
1300.46 870.386 1745.68 0.0841808 0.897634 0.432627 1
1298.92 862.165 1745.72 0.619387 0.749662 0.233164 1
1300.81 894.158 1746.05 -0.160154 -0.955706 -0.246934 1
1295.27 901.984 1745.73 -0.697841 0.204528 0.68643 1
1300.29 869.364 1747.14 -0.700085 -0.108832 -0.705717 1
1300.81 877.383 1748.52 -0.526135 -0.491777 -0.693785 1
1300.92 876.027 1747.91 0.619844 0.00220797 -0.784722 1
1300.08 898.958 1749.03 0.594791 -0.789828 0.149654 1
1294.68 902.934 1748.85 -0.00489519 -0.999645 -0.0261775 1
1293.37 909.142 1746.55 0.560569 0.614688 0.554906 1
1293.93 906.887 1745.95 0.742815 0.50327 0.441527 1
1299.98 867.139 1745.9 0.47752 0.564446 0.673331 1
1300.75 891.641 1747.75 -0.518584 0.719429 0.462053 1
1300.78 887.843 1749.23 -0.147709 -0.918095 0.36781 1
1299.93 897.206 1749.72 -0.561077 0.341511 0.754031 1
1299.07 905.881 1745.84 0.473298 0.463135 0.74933 1
1301.23 882.611 1747.63 -0.733663 0.328222 -0.594986 1
1299.61 865.768 1747.71 0.269155 0.323802 -0.907032 1
1301.13 880.708 1747.44 -0.609146 -0.213643 -0.76374 1
1299.85 866.27 1746.1 0.32497 0.0340868 0.94511 1
1300.85 877.477 1746 -0.712691 -0.47709 0.514253 1
1301.26 881.247 1745.52 -0.00238882 0.642479 0.766299 1
1300.88 874.922 1747.33 0.827503 -0.56146 -0.00136809 1
1301.25 883.845 1746.97 0.718523 -0.151173 -0.678875 1
1298.98 861.687 1745.61 0.695334 0.285132 0.659704 1
1301.21 881.436 1747.93 -0.263617 -0.037136 0.963912 1
1299.83 901.529 1746.53 -0.881103 -0.41056 0.234728 1
1295.58 897.514 1748.77 0.202402 0.350351 -0.914488 1
1301.1 877.927 1745.56 0.977875 -0.169739 0.122265 1
1297.74 888.846 1750.12 0.521522 0.749681 -0.407423 1
1300.75 893.665 1747.95 -0.980935 -0.133334 -0.141379 1
1299.93 876.691 1749.25 -0.786581 -0.232577 0.572012 1
1301.19 883.643 1748.21 0.880881 -0.43887 0.17732 1
1299.6 864.75 1746.3 -0.217167 -0.540227 -0.813015 1
1300.91 875.222 1746.72 0.776486 -0.281042 -0.56399 1
1299.75 865.887 1746.23 0.492381 0.53494 -0.686586 1
1300.81 893.891 1747.58 0.213799 0.892837 0.396399 1
1299.8 866.984 1746.11 -0.506374 -0.309761 -0.804757 1
1301.24 886.938 1746.49 -0.0111471 -0.536339 -0.843929 1
1300.73 894.861 1746.84 -0.0757419 0.160462 0.984132 1
1300.47 872.308 1748.2 0.857169 0.511851 -0.0571841 1
1301.16 886.607 1748 -0.223156 0.115758 -0.967885 1
1300.96 891.961 1747.15 0.627749 -0.160849 -0.761616 1
1301.07 877.594 1746.52 -0.728862 -0.683714 -0.0359945 1
1299.91 900.566 1748.61 0.347162 -0.793804 -0.499353 1
1299.11 862.228 1746.68 -0.0856527 -0.338827 0.936942 1
1299.8 865.931 1746.38 0.0490333 0.50748 -0.860267 1
1300.39 870.128 1745.94 -0.731836 -0.679061 -0.0573845 1
1300.27 896.714 1748.85 -0.614706 -0.472902 0.631268 1
1300.57 873.174 1748.17 0.549985 -0.0604402 0.832985 1
1300.04 899.585 1745.53 -0.575151 0.138998 -0.806152 1
1296.43 884.191 1747.29 -0.755574 -0.646329 0.106615 1
1296.11 894.62 1745.38 0.0203462 -0.602475 -0.797878 1
1300.26 882.389 1749.56 0.495454 -0.0404268 -0.867693 1
1299.94 901.007 1747.24 -0.256399 0.95068 0.174547 1
1298.68 907.529 1747.18 0.797867 0.323516 -0.508671 1
1298.83 860.928 1745.36 -0.109946 -0.462047 0.880014 1
1300.83 893.996 1746.34 -0.056031 0.996666 -0.0593051 1
1299.72 867.087 1745.82 0.0927124 0.970147 0.224098 1
1301.11 889.794 1746.27 0.526741 0.708066 0.470305 1
1299.74 867.204 1745.61 -0.211819 -0.562618 0.799121 1
1300.61 872.594 1747.93 -0.00971283 0.729508 0.683903 1
1300.62 874.219 1748.35 -0.76503 0.63148 0.126343 1
1300.75 881.106 1749.08 0.412098 -0.695653 -0.588424 1
1301.08 880.116 1748.27 0.716512 -0.579016 0.389039 1
1301.21 887.587 1747.52 0.0235847 -0.860803 0.508391 1
1300.68 894.4 1747.36 -0.820161 -0.484563 0.304193 1
1299.45 903.545 1748.1 0.784614 0.129279 0.606355 1
1300.96 880.295 1747.61 -0.395482 0.858714 0.32589 1
1300.74 894.373 1747.82 0.968529 -0.247548 0.025929 1
1301.02 876.456 1746.44 -0.326947 0.574012 0.750743 1
1300.44 882.48 1749.49 -0.255425 0.715409 0.650344 1
1299.77 902.151 1746.49 -0.0937402 0.56578 0.81921 1
1300.96 891.98 1747.6 -0.418038 0.654047 0.630449 1
1300.93 891.749 1748.29 0.439872 -0.0892313 -0.893617 1
1301.22 882.639 1747.82 -0.679914 -0.0302237 -0.732669 1
1299.62 902.84 1746.85 -0.788222 0.615389 -0.00118443 1
1301.01 876.151 1746.47 0.0880331 0.159327 -0.983293 1
1295.27 901.686 1745.64 0.76931 0.614189 -0.175882 1
1299.96 876.557 1749.36 -0.161237 -0.93938 0.302601 1
1295.8 895.561 1747.24 0.956415 0.247015 -0.155736 1
1299.56 902.993 1748.28 -0.673201 0.43964 0.594573 1
1300.32 897.789 1747.2 0.630799 0.610893 0.478437 1
1301.17 880.682 1747.32 -0.486496 0.207874 0.848593 1
1300.81 894.062 1745.46 0.757965 0.639506 -0.128531 1
1298.48 908.463 1746.49 0.755 0.0480717 -0.65396 1
1300.45 870.465 1745.69 0.21369 -0.957866 0.191912 1
1299.28 863.566 1747.6 -0.496595 -0.85711 -0.136952 1
1299.76 898.036 1749.65 0.997228 0.0650378 -0.036147 1
1299.9 866.525 1746.17 0.0837127 0.0799526 0.993277 1
1295.9 894.875 1747.29 0.279111 -0.507906 -0.814941 1
1299.91 866.636 1745.54 -0.328766 -0.613531 -0.717978 1
1299.11 870.646 1749.39 0.236433 0.415833 0.87817 1
1299.02 862.277 1747.53 0.765004 0.313692 0.562465 1
1299.06 862.044 1746.23 -0.250291 0.880671 0.402209 1
1301.02 878.056 1745.38 0.329988 0.703235 -0.629737 1
1301.11 887.56 1748.4 0.973311 -0.112773 0.199869 1
1301.25 884.86 1746.57 -0.864948 -0.25262 0.433646 1
1300.8 893.877 1748.2 -0.10801 0.917043 0.383884 1
1299.98 898.422 1749.32 -0.122852 -0.46559 0.876432 1
1301.03 888.392 1748.58 -0.892305 0.140787 -0.428919 1
1301.21 880.557 1746.23 -0.703616 -0.52341 -0.48059 1
1301.11 882.184 1748.41 -0.810631 0.106691 -0.575755 1
1299.68 865.423 1746.94 -0.817235 0.567244 -0.101787 1
1300.34 880.518 1749.14 0.112221 -0.77027 0.627767 1
1300.33 869.447 1746.32 -0.0304379 -0.778103 -0.627399 1
1297.77 888.952 1750.17 0.184856 -0.982099 0.0361844 1
1300.96 883.906 1748.85 -0.658908 0.642797 -0.390708 1
1301.12 878.375 1745.94 -0.836985 0.326826 0.438908 1
1300.88 893.559 1745.99 -0.0495912 0.253942 0.965947 1
1300.99 891.995 1745.49 -0.590974 0.168804 -0.788831 1
1300.3 897.305 1748.92 0.588631 0.805336 -0.0703365 1
1297.7 889.058 1750.12 0.733125 -0.625753 -0.266385 1
1301 886.153 1748.4 -0.651085 -0.622238 -0.434635 1
1300.81 893.897 1746.18 0.960166 0.0213861 -0.278612 1
1300.61 880.768 1749.19 -0.798663 0.585813 -0.137701 1
1300.82 892.071 1748.75 0.427811 -0.0488968 0.902545 1
1298.99 861.82 1746.54 -0.735371 0.232873 -0.636396 1
1295.5 898.002 1745.39 -0.127173 -0.987336 -0.0948407 1
1295.85 896.363 1745.36 -0.549715 -0.470147 0.690489 1
1300.73 873.107 1746.75 -0.433563 -0.23287 0.870514 1
1300.31 869.675 1747.51 -0.319149 0.731533 -0.602498 1
1301.23 883.24 1747.83 0.971349 0.108222 -0.211587 1
1300.88 893.478 1746.23 -0.0372859 0.297291 0.954058 1
1298.95 861.501 1746.55 0.417549 0.0926929 -0.903914 1
1301.18 880.768 1747.62 -0.218501 0.62148 0.752343 1
1301.11 885.76 1748.44 0.573422 -0.598477 -0.559475 1
1300.51 896.796 1746.13 -0.838814 0.135386 0.527315 1
1300.05 867.576 1745.4 0.240354 -0.928751 -0.282227 1
1299.43 863.817 1745.67 0.13229 0.984416 -0.115864 1
1300.69 890.687 1749.24 0.555148 -0.816414 -0.158991 1
1300.49 895.729 1748.95 -0.222685 -0.606186 0.763511 1
1300.81 893.939 1747.62 0.119396 -0.445974 -0.887047 1
1301.1 889.112 1746.77 -0.90681 -0.133473 0.399851 1
1300.49 870.765 1746.96 -0.140843 -0.5827 -0.80039 1
1300.08 899.676 1748.71 0.185857 -0.960464 -0.207281 1
1300.44 895.186 1748.18 0.1736 0.919641 -0.352312 1
1301.27 882.039 1746.35 0.037024 -0.0351797 -0.998695 1
1294.69 902.915 1746.45 -0.100482 0.351488 0.930784 1
1299.64 901.469 1748.37 0.014321 0.989183 -0.145988 1
1301.26 885.589 1746.29 -0.350272 -0.914599 -0.202033 1
1300.12 868.157 1745.43 0.678426 -0.551134 0.485787 1
1300.94 890.794 1748.68 -0.261174 -0.409561 0.874098 1
1299.92 866.991 1745.63 0.374903 -0.0723171 -0.924239 1
1301.11 889.01 1747.85 -0.938626 -0.249613 0.238063 1
1299.63 865.816 1747.67 -0.274065 -0.956635 -0.0986816 1
1300.67 894.075 1745.3 0.419971 -0.907284 0.0214615 1
1300.14 869.833 1746.37 0.661495 -0.672172 0.332579 1
1297.67 888.953 1750.12 -0.620291 0.667412 -0.412069 1
1300.98 877.501 1748.14 -0.186121 -0.755434 -0.628234 1
1300.68 894.773 1748.55 0.245996 -0.769837 -0.588928 1
1301.04 891.073 1747.42 0.0459765 -0.835966 0.546851 1
1301.22 887.07 1747.77 -0.00148698 0.448027 0.894019 1
1300.37 883.587 1749.35 0.673142 -0.41047 -0.615138 1
1299.67 866.665 1746.14 -0.277763 0.657934 0.699979 1
1301.01 891.32 1745.5 0.899677 0.357697 -0.25027 1
1300.86 893.758 1745.75 -0.15423 -0.606646 0.779868 1
1299.72 866.063 1747.77 0.11254 -0.501164 -0.858003 1
1295.83 895.265 1748.37 0.956947 0.0239545 -0.289272 1
1301.19 879.645 1747.49 -0.0129653 0.320687 -0.947097 1
1300.3 869.515 1747.11 0.946139 0.320043 0.0489197 1
1300.96 892.426 1745.41 0.380354 0.673954 0.633338 1
1296.55 870.42 1749.14 -0.178888 0.118571 0.976698 1
1301.02 881.084 1748.62 -0.362597 -0.695661 0.620145 1
1301.11 878.486 1746.87 0.80461 -0.304494 -0.509791 1
1300.18 899.512 1746.4 -0.0808916 0.405708 0.910416 1
1301.25 886.88 1746.64 -0.0279342 0.506616 -0.861719 1
1299.96 900.548 1748.09 -0.818642 0.522025 -0.239406 1
1300.95 878.79 1745.41 0.919351 -0.385618 0.0780568 1
1301.18 880.161 1746.61 -0.87909 0.184274 0.439595 1
1300.83 875.311 1748.04 0.359729 -0.338772 0.869384 1
1296.23 909.259 1751.06 -0.724269 -0.675852 -0.136598 1
1300.32 869.396 1746.33 -0.128819 -0.59764 0.791349 1
1301.25 882.976 1746.54 -0.778566 -0.51085 0.364509 1
1300.18 899.46 1745.93 -0.408126 -0.888979 0.207726 1
1300.46 873.072 1748.41 0.971833 0.185589 -0.145249 1
1299.54 902.775 1748.55 -0.273493 -0.935406 -0.224093 1
1301.28 882.718 1746.45 -0.0156325 0.186333 0.982362 1
1301.22 882.039 1747.53 -0.82731 -0.449199 -0.337312 1
1300.6 871.953 1745.76 -0.987449 -0.148849 -0.0527983 1
1301 880.509 1746.51 0.00628454 0.294721 0.955563 1
1293.46 908.622 1748.28 -0.983993 0.157058 -0.0842104 1
1299.55 901.984 1748.65 0.00995887 -0.90566 0.423888 1
1300.26 869.125 1746.09 0.575815 0.677962 -0.456951 1
1301.12 878.092 1746.7 0.342721 0.853146 0.393299 1
1300.64 874.269 1747.57 -0.131193 0.54681 -0.826914 1
1300.19 868.487 1746.11 0.135649 -0.889078 -0.437195 1
1295.55 900.478 1745.5 0.117938 -0.907687 -0.402734 1
1301.13 888.898 1747.31 0.66773 -0.224779 0.709656 1
1300.82 893.897 1745.92 -0.532911 -0.0401565 -0.845218 1
1300.91 877.5 1745.83 0.145928 -0.695528 0.703523 1
1300.11 898.759 1749 -0.398465 -0.429808 -0.810241 1
1300.91 881.439 1748.87 -0.431897 0.210147 0.877099 1
1299.58 901.613 1748.74 0.307593 0.00603224 -0.951499 1
1299.82 866.959 1746.09 -0.929197 0.316409 -0.190992 1
1296.38 891.733 1748.03 -0.00642954 -0.251275 -0.967894 1
1297.14 908.982 1750.74 0.0415184 -0.999128 -0.00438169 1
1301.19 878.961 1745.44 0.0545948 0.742423 0.667704 1
1300.73 894.661 1747.21 -0.553416 0.319098 0.769355 1
1301.02 884.891 1748.71 0.619518 -0.766065 0.171298 1
1300.88 893.05 1746.09 -0.965056 0.0147704 -0.261628 1
1300.38 870.006 1745.41 0.845901 0.381279 0.37293 1
1300.13 896.96 1749.09 0.678044 0.576354 0.45615 1
1301.19 879.075 1745.64 0.0398301 0.378066 -0.924921 1
1299.82 901.698 1745.95 -0.995954 0.039598 -0.080676 1
1300.89 891.929 1747.21 -0.542993 0.818903 0.185894 1
1299.84 901.125 1748.75 0.628367 -0.0641108 -0.775271 1
1301.26 882.968 1746.9 -0.481988 -0.73746 0.473119 1
1296.39 870.966 1748.97 -0.330796 -0.548932 0.767625 1
1301.04 890.543 1747.1 0.749508 0.511654 0.420057 1
1299.9 867.269 1745.93 0.0889994 -0.567792 -0.818347 1
1299.91 867.205 1746.08 -0.524419 -0.385197 -0.759348 1
1294.3 906.934 1745.76 -0.539132 0.188029 0.820964 1
1301.02 877.09 1747.68 -0.65865 0.742273 -0.123332 1
1301.25 885.158 1746.15 0.876746 -0.462486 0.131997 1
1300.15 870.106 1746.19 -0.0389366 -0.807988 -0.587911 1
1300.27 882.292 1749.4 0.908793 0.305647 0.284033 1
1300.84 885.158 1748.67 -0.568397 0.631643 -0.527211 1
1299.85 900.808 1748.63 -0.664725 0.593213 0.454135 1
1299.82 900.814 1748.79 0.5019 -0.806755 0.311839 1
1300.14 882.403 1749.49 0.05866 -0.99813 0.0171757 1
1300.02 900.534 1746.3 -0.483321 0.447777 -0.752261 1
1300.92 877.309 1746.36 0.932375 0.0427204 -0.35896 1
1299.46 902.068 1748.46 0.26533 -0.756637 -0.597579 1
1301.27 884.097 1747.72 0.0218968 0.976876 0.212681 1
1299.69 865.395 1746.7 -0.704633 -0.531718 -0.46986 1
1300.75 894.587 1747.62 -0.119265 0.899836 -0.419608 1
1301.09 889.974 1747.42 -0.606224 -0.792993 -0.0604539 1
1300.83 893.406 1748.36 0.0856586 -0.869813 -0.485889 1
1300.59 894.518 1746 -0.120821 0.753684 0.646036 1
1299.78 865.96 1746.53 0.632726 -0.727346 -0.265755 1
1301.05 876.656 1745.38 0.196542 -0.304534 0.932004 1
1295.16 900.179 1747.07 0.329248 0.45318 0.828386 1
1300.84 874.322 1746.03 -0.874696 0.48439 0.016507 1
1301.05 876.601 1745.72 -0.000484779 0.000587533 -1 1
1300.8 873.894 1747.17 0.724076 -0.671145 -0.15899 1
1300.4 870.32 1746.2 -0.899291 -0.43723 -0.0102867 1
1295.91 895.266 1748.65 0.12036 -0.984656 -0.126356 1
1297.39 882.844 1749.4 0.68136 -0.724813 0.101955 1
1299.2 862.74 1747.09 0.0345865 -0.726547 0.686246 1
1295.4 898.365 1748.39 -0.301056 0.0798043 -0.950261 1
1301.23 880.704 1746.99 -0.137012 -0.30443 0.942629 1
1300.3 876.44 1748.99 -0.033467 -0.363221 -0.931102 1
1301.14 877.911 1745.53 0.0148253 0.270426 0.962627 1
1301.14 878.541 1747.24 -0.00110575 0.761434 0.648242 1
1300.9 892.257 1748.33 -0.610247 0.78421 0.112306 1
1293.7 907.591 1748.73 0.784701 0.197337 -0.587624 1
1300.77 873.486 1746.47 -0.440154 -0.513064 -0.736905 1
1300.73 872.815 1746.04 0.097682 0.371679 0.923208 1
1300.79 894.17 1747.69 0.016978 -0.854499 -0.519176 1
1297.02 908.927 1750.79 0.0407522 -0.770865 0.635694 1
1300.94 879.405 1745.52 -0.262052 0.461202 0.847716 1
1296.51 884.403 1747.4 0.255323 0.486362 -0.835621 1
1301.22 881.529 1748.03 -0.0109114 0.900638 0.434433 1
1300.64 895.245 1748.15 -0.873752 0.403317 -0.271833 1
1301.16 879.241 1747.35 0.3645 0.819972 -0.441345 1
1295.92 895.219 1748.69 0.236179 -0.135948 0.962153 1
1300.25 896.08 1745.37 0.767402 0.640596 -0.0270416 1
1301.23 885.129 1747.87 0.750304 0.422411 0.50854 1
1301.24 885.856 1746.7 0.485087 0.330533 -0.809591 1
1300.79 892.302 1748.06 0.10583 -0.84666 -0.521505 1
1300.34 897.888 1747.98 -0.758721 -0.369059 0.536785 1
1300.68 895.352 1747.36 0.0938445 -0.992333 -0.0804248 1
1299.75 876.673 1749.29 -0.0491384 0.998668 0.0157452 1
1301.21 887.912 1746.85 0.0391416 -0.987358 -0.153596 1
1299.14 862.342 1746.41 -0.00373236 0.000440061 0.999993 1
1301.13 878.713 1747.82 -0.029702 -0.810165 -0.585449 1
1300.11 867.912 1745.44 -0.318773 -0.18964 0.928666 1
1300.88 875.221 1747.49 0.490927 0.507581 0.708062 1
1301.23 882.538 1747.84 0.860027 0.45871 0.22347 1
1299.4 903.984 1746.65 0.485677 0.496089 0.719732 1
1300.19 868.551 1745.59 0.4264 0.21851 -0.877745 1
1298.99 861.799 1745.92 0.712856 -0.490338 0.501403 1
1300.64 891.425 1749.28 -0.438217 -0.538322 0.719844 1
1301.24 881.632 1747.8 -0.084796 0.365293 0.927022 1
1299.05 862.482 1746.08 0.0624785 -0.54432 0.836548 1
1301.03 890.937 1747.6 0.581683 0.605225 0.543459 1
1297.87 888.821 1749.97 -0.793142 -0.436169 -0.425067 1
1300.78 894.198 1746.47 0.851898 0.182652 -0.490824 1
1300.8 874.241 1747.87 -0.191108 -0.719044 0.668172 1
1300.95 876.027 1747.77 0.423341 -0.634703 0.646479 1
1300.74 873.573 1747.78 0.17567 -0.466314 -0.867001 1
1300.18 897.054 1749.31 -0.410742 -0.660026 -0.629012 1
1299.81 897.759 1749.79 0.323357 -0.702204 -0.634311 1
1300.86 874.681 1746.97 0.676381 -0.425419 0.601271 1
1300.4 897.439 1747.92 -0.740995 -0.650992 -0.164732 1
1301.04 878.011 1745.41 0.867393 -0.483928 0.115945 1
1295.52 897.902 1745.42 0.505408 -0.176677 -0.844599 1
1295.75 895.713 1746.53 0.0248557 0.307949 -0.951078 1
1300.78 894.136 1746.92 -0.774793 0.619775 0.124801 1
1300.78 894.172 1747.61 0.348932 -0.775974 -0.525463 1
1296.1 891.987 1748.11 -0.237058 0.682846 0.691031 1
1301.24 880.482 1745.77 0.0668468 0.620423 -0.781413 1
1301.06 879.595 1747.87 0.694321 -0.0562657 -0.717462 1
1300.48 896.421 1747.4 0.391975 -0.256167 0.883592 1
1300.91 877.612 1746.25 -0.159149 -0.890621 -0.425988 1
1301.12 878.394 1747.51 -0.631197 -0.0467477 0.774212 1
1299.71 897.929 1749.9 -0.385084 0.842561 0.376566 1
1300.09 898.749 1749.04 -0.734833 -0.671216 0.0974105 1
1300.59 871.831 1746.54 -0.995221 -0.0432332 -0.0875523 1
1300.04 900.162 1748.08 -0.532128 0.333154 -0.778363 1
1296.06 892.99 1747.19 -0.677816 -0.580393 0.451341 1
1299.82 901.825 1746.83 0.0782199 -0.346027 0.934958 1
1300.99 876.303 1746.64 0.770335 0.218181 -0.599151 1
1299.75 865.814 1746.2 0.963922 -0.0824081 0.253108 1
1300.48 870.644 1746.61 0.0914504 0.838958 -0.536458 1
1300.88 875.271 1747.54 0.560037 -0.714558 -0.419244 1
1299.47 903.224 1748.23 -0.246253 -0.218483 -0.944259 1
1301.09 877.687 1745.9 -0.791084 0.516951 -0.327029 1
1300.15 868.311 1746.99 -0.43466 0.0139201 -0.900487 1
1295.02 901.585 1749.1 0.615831 0.508988 -0.601401 1
1299.85 901.557 1747.22 0.111461 -0.156606 0.981352 1
1299.77 871.624 1749.05 -0.210348 0.569256 -0.794796 1
1300.58 871.668 1746.91 0.664664 -0.506811 -0.548967 1
1300.87 874.82 1747.43 0.72492 -0.669652 -0.161423 1
1301.14 888.898 1746.85 -0.714442 0.6967 0.0646653 1
1301.01 880.941 1746.7 -0.609672 0.262766 0.747833 1
1300.16 868.204 1745.57 0.0428274 0.133056 -0.990183 1
1299.79 866.211 1747.35 0.758057 -0.607414 0.237485 1
1301.13 878.268 1746.25 0.268187 -0.794166 -0.545322 1
1300.44 897.414 1746.63 0.360486 -0.758215 0.543286 1
1300.61 878.676 1749.07 0.508213 -0.545212 -0.666681 1
1301.18 879.287 1746.75 -0.290248 0.52697 0.798786 1
1301.04 891.205 1746.87 0.112257 -0.211542 -0.970901 1
1301.15 880.364 1748.05 0.249616 -0.89789 0.36261 1
1301.23 881.067 1747.69 0.175847 -0.00332678 -0.984412 1
1293.61 908.096 1746.1 0.0763227 -0.704353 0.705735 1
1299.99 900.913 1745.64 -0.0779265 0.364719 -0.927851 1
1295.22 899.959 1746.1 0.716029 -0.59538 -0.364452 1
1300.33 870.248 1747.9 -0.332224 -0.638696 0.694042 1
1300.15 898.395 1747.9 -0.854297 0.314613 0.413758 1
1299.81 899.945 1745.52 0.550796 -0.832336 -0.0619678 1
1300.53 896.749 1745.76 -0.542735 -0.22727 0.808571 1
1299.75 901.851 1748.71 0.430263 -0.770878 0.469702 1
1294.64 903.601 1749.08 0.706629 0.67156 -0.222895 1
1293.18 909.749 1748.32 0.656105 0.257303 -0.709452 1
1300.26 882.099 1749.59 -0.933931 0.355671 -0.035646 1
1300.37 897.953 1747.38 -0.0759005 -0.0956269 0.992519 1
1300.05 880.452 1749.65 -0.603556 0.591579 -0.53456 1
1301.24 885.958 1745.68 -0.930422 0.34188 0.13203 1
1301.06 877.302 1747.13 0.289989 -0.903009 0.316987 1
1301.17 884.348 1748.13 0.12643 -0.0449087 -0.990958 1
1300.59 882.355 1749.3 0.818969 0.560089 0.124862 1
1301.2 887.461 1748.02 -0.109156 -0.761902 0.638428 1
1300.86 892.319 1747.8 -0.519082 0.451961 0.725455 1
1300.2 899.224 1745.83 -0.887074 0.0727068 0.455866 1
1295.63 898.486 1745.45 0.543423 -0.224784 0.808804 1
1299.75 865.895 1747.26 0.718483 -0.415521 -0.557785 1
1301.21 879.788 1746.4 -0.0956327 -0.73646 0.669688 1
1300.46 873.396 1748.54 0.181427 -0.834484 -0.520309 1
1298.72 860.616 1747.06 -0.726524 0.660009 0.191182 1
1300.78 893.993 1747.44 0.649881 -0.140179 0.746997 1
1295.16 901.522 1745.86 -0.135114 -0.961005 0.241274 1
1300.27 868.952 1746.04 -0.119044 -0.968479 -0.218807 1
1299.73 901.906 1748.25 0.61251 -0.0902297 -0.785296 1
1299.61 901.401 1748.38 0.746713 0.643207 -0.169423 1
1294.07 906.935 1749.67 0.0460174 -0.89525 -0.443181 1
1300.29 873.398 1748.44 -0.88781 -0.0351652 0.458864 1
1301.26 882.66 1747.69 -0.0159443 -0.431836 0.901811 1
1298.91 904.66 1745.71 -0.0824463 0.882651 -0.462742 1
1301.11 877.783 1747.21 0.0129707 0.0792712 -0.996769 1
1298.89 862.25 1745.92 -0.343003 -0.873916 -0.344411 1
1300.66 872.302 1746.24 0.362395 -0.815514 -0.451228 1
1300.86 874.238 1746.17 -0.126802 -0.873565 -0.469899 1
1301.03 880.505 1746.83 -0.135784 -0.370128 0.919004 1
1301.29 882.945 1745.6 0.030549 0.959121 0.281344 1
1300.42 870.582 1747.67 0.0798798 0.459948 0.884346 1
1296.36 891.927 1748.03 -0.0870977 0.320962 -0.943079 1
1299.86 894.172 1749.99 -0.906982 -0.26783 0.325039 1
1300.97 891.598 1747.79 -0.62081 -0.688343 0.375205 1
1296.45 884.292 1747.43 -0.124923 0.530688 -0.838311 1
1301.02 878.134 1748.2 -0.251397 -0.33691 0.907354 1
1299.91 901.067 1746.3 0.263772 0.948765 -0.17398 1
1295.78 895.358 1748.31 0.121828 -0.872796 0.472636 1
1294.01 906.307 1747.04 -0.332443 -0.703104 -0.628591 1
1300.51 897.045 1746.09 -0.0652624 0.412815 -0.908474 1
1299.8 901.741 1748.14 -0.0557389 0.0200786 -0.998243 1
1300.81 873.828 1746.73 -0.123396 -0.796142 -0.592395 1
1300.17 899.131 1748.49 0.226303 0.866234 0.445449 1
1300.42 896.588 1748.83 0.662394 -0.740983 0.110359 1
1300.82 874.247 1746.64 0.870808 0.122757 0.47605 1
1295.43 868.431 1746.39 0.784529 0.108662 0.610498 1
1299.65 865.031 1745.76 0.126928 0.791706 -0.59757 1
1300.98 876.823 1748.02 0.206221 0.756069 -0.621154 1
1300.83 893.795 1745.5 0.764186 0.460476 0.451644 1
1294.3 904.936 1748.01 0.705998 0.707235 0.0372261 1
1296.56 870.562 1748.88 0.883095 -0.38873 -0.26274 1
1300.32 869.379 1745.71 0.155784 0.97206 0.175589 1
1297.95 888.779 1750.08 0.268754 0.158811 0.950026 1
1301.27 884.869 1747.24 -0.0410303 -0.789843 0.611935 1
1299.69 866.676 1746.25 0.990105 0.0709601 0.121065 1
1301.27 881.407 1745.76 0.0673842 -0.83322 -0.54882 1
1299.24 862.838 1746.41 -0.177417 -0.728655 0.661502 1
1301.07 889.801 1747.89 0.988459 -0.140072 -0.0576893 1
1301.19 888.529 1746.79 -0.0367516 0.200654 0.978973 1
1294.11 905.937 1746.34 -0.61564 0.62219 -0.483598 1
1300.31 869.46 1746.45 -0.296297 0.714 -0.63436 1
1300.75 892.875 1748.78 -0.185989 -0.399813 -0.897529 1
1300.47 870.647 1746.28 0.5562 0.816621 0.154184 1
1300.01 900.426 1748.16 -0.109537 0.983821 0.141767 1
1300.22 883.383 1749.69 -0.049399 -0.675401 -0.735794 1
1299.77 901.737 1748.45 -0.725603 0.54992 0.413628 1
1297.92 888.828 1750.2 -0.193904 0.90241 -0.384782 1
1299.71 865.963 1747.69 0.147382 -0.209156 0.966712 1
1294.26 904.945 1748.02 -0.221716 0.917311 0.330729 1
1300.31 880.79 1749.39 0.992028 -0.124426 -0.0199435 1
1301.11 880.305 1748.31 0.338499 -0.0499042 -0.939642 1
1296.19 892.867 1747.16 0.207716 0.908334 -0.363021 1
1297.07 907.816 1750.84 -0.925997 0.336347 -0.171466 1
1300.64 872.04 1746.38 -0.0865571 0.637356 0.765693 1
1299.45 902.231 1748.23 0.0110942 -0.953369 -0.301603 1
1301.07 877.08 1746.92 -0.00339396 0.707059 0.707146 1
1295.12 901.514 1745.75 -0.578843 -0.766446 0.27839 1
1301.05 886.236 1748.36 0.481734 -0.811213 -0.331461 1
1300.16 882.02 1749.52 -0.803049 -0.570925 0.170754 1
1301.24 882.248 1747.21 -0.750993 0.566325 0.339537 1
1299.88 867.595 1746.27 -0.326444 0.72583 -0.605479 1
1295.74 897.632 1749.2 0.936697 0.127494 -0.326105 1
1300.46 872.175 1748.18 -0.177298 0.138876 -0.974309 1
1301.24 882.38 1747.22 -0.787349 -0.307881 -0.534127 1
1301.21 881.489 1747.65 -0.728901 -0.572203 -0.375881 1
1301.01 885.265 1748.35 -0.528612 -0.53724 -0.657223 1
1299.05 862.449 1746.42 0.374861 -0.719179 0.585031 1
1300.5 895.14 1748.26 -0.241999 -0.643958 -0.725779 1
1295.28 868.262 1746.13 -0.841235 0.113269 0.528671 1
1297.24 908.095 1750.77 -0.137479 0.988569 0.0618909 1
1301.26 882.191 1746.92 -0.382345 0.723764 0.574437 1
1300.78 894.5 1746.16 -0.186223 0.253099 -0.949348 1
1301.25 882.142 1747.17 0.168217 -0.681572 0.712154 1
1299.54 864.604 1745.56 0.715559 -0.550306 0.430277 1
1299.7 902.427 1747.01 0.364399 0.21595 0.905858 1
1295.18 867.8 1746.38 -0.158055 0.968628 -0.191779 1
1300.4 883.137 1749.28 -0.626869 -0.769471 -0.12227 1
1300.22 880.606 1749.34 -0.363126 0.912977 -0.186046 1
1300.69 892.329 1748.16 -0.599838 -0.0348805 0.799361 1
1299.7 869.354 1748.81 0.666391 -0.0269869 -0.745114 1
1301.13 879.921 1747.92 0.504999 0.202844 -0.838946 1
1300.24 871.522 1748.43 0.999111 -0.0360247 -0.0218991 1
1294.98 901.477 1745.8 -0.701279 -0.666488 -0.252984 1
1295.43 898.624 1745.91 -0.830452 0.111586 -0.5458 1
1301.07 879.259 1748.18 0.653459 -0.73271 -0.190073 1
1299.97 867.022 1747.2 -0.142145 -0.743493 -0.653462 1
1300.97 880.545 1748.68 -0.320806 0.664117 0.675302 1
1300.23 868.739 1746.68 0.060602 0.803007 -0.592881 1
1301.27 883.115 1746.23 -0.597326 -0.617846 -0.511339 1
1300.42 870.345 1745.69 0.754239 0.104736 -0.648192 1
1301.01 891.372 1747.5 0.404479 -0.766112 -0.499468 1
1300.76 891.762 1747.57 0.707841 0.344342 -0.616758 1
1295.33 868.582 1746.33 0.750983 0.160598 0.640495 1
1299.02 861.849 1745.43 0.668296 0.741969 -0.053495 1
1300.09 882.554 1749.66 -0.38423 0.463972 0.798184 1
1300.2 896.929 1749.25 0.416832 -0.344592 0.841134 1
1301.23 886.736 1745.34 0.972052 0.129533 0.195798 1
1299.74 897.42 1749.55 0.794551 -0.160665 0.585556 1
1300.56 896.158 1747.61 0.665884 -0.41476 0.620138 1
1300.56 896.085 1748.14 -0.78442 0.322954 -0.529515 1
1300.09 876.384 1749.37 -0.451469 0.800129 0.39493 1
1300.59 896.103 1748.07 0.111424 -0.90277 0.415442 1
1300.44 894.89 1748.49 -0.868305 0.206008 0.451229 1
1301.05 877.146 1747.61 0.379549 -0.439323 0.81421 1
1299.98 897.09 1749.65 -0.0697922 -0.969383 -0.235426 1
1300.12 868.082 1746.84 -0.608587 -0.69091 -0.390212 1
1300.87 876.285 1748.26 -0.413238 -0.401099 0.817529 1
1300.75 894.561 1747.79 -0.0881334 0.81015 0.57956 1
1296.32 891.742 1748.49 -0.747406 0.103917 0.65619 1
1295.79 895.31 1746.88 -0.0717548 -0.0345033 0.996825 1
1300.14 897.065 1748.89 -0.131885 0.274708 -0.95244 1
1300.1 897.037 1748.94 -0.924221 -0.375003 0.0720244 1
1300.55 895.594 1745.39 -0.151006 0.495131 -0.855595 1
1299.65 865.785 1747.59 -0.337079 0.860245 0.382566 1
1300.08 873.197 1748.59 -0.571066 -0.236362 0.786141 1
1297.73 903.439 1750.79 0.368074 0.926652 -0.0763981 1
1295.3 901.551 1745.76 -0.146427 -0.0707073 -0.986691 1
1299.61 901.638 1748.37 -0.575009 -0.277059 -0.769807 1
1299.49 865.449 1748.05 0.497589 -0.361407 -0.788537 1
1301.18 886.444 1748.25 -0.488524 -0.863656 -0.12427 1
1300.8 876.785 1745.61 -0.0966875 -0.111907 -0.989004 1
1297.6 863.676 1749.29 -0.208178 0.773851 -0.598177 1
1296.56 884.317 1747.25 0.134916 -0.688546 0.712532 1
1299.7 897.515 1749.84 -0.912491 0.135708 0.385931 1
1301 878.202 1748.31 -0.0253573 0.919534 0.392191 1
1294.66 903.305 1745.87 -0.851164 0.482302 -0.207135 1
1296.47 888.381 1745.56 0.0535933 -0.241508 0.968918 1
1298.8 904.645 1749.86 0.741298 0.377838 0.554721 1
1299.36 870.46 1749.25 0.313527 0.944946 -0.0936916 1
1295.82 895.206 1748.47 0.13705 0.486081 -0.8631 1
1301.26 884.936 1747.89 -0.00702399 0.905922 0.423386 1
1294.96 901.595 1746.6 0.937842 0.0928486 -0.334413 1
1294.45 905.82 1745.7 -0.951793 -0.221736 -0.211952 1
1299.56 864.741 1746.44 0.829051 0.392414 -0.398354 1
1296.09 892.12 1748.15 -0.40096 0.82554 -0.397133 1
1300.92 878.077 1745.36 0.598671 -0.298252 0.743397 1
1299.74 902.184 1746.49 0.518454 -0.253252 0.816743 1
1295.76 868.91 1748.35 -0.71079 0.702415 -0.0372893 1
1301.05 880.745 1747.14 0.847148 -0.530939 0.0210607 1
1299.98 881.999 1749.51 0.136291 -0.868069 -0.477369 1
1299.57 864.757 1746.89 -0.399753 0.595694 0.696669 1
1300.11 876.225 1749.32 -0.922892 0.236223 0.304087 1
1299.83 867.739 1746.36 -0.387971 -0.0873643 -0.917521 1
1300.29 898.395 1747.7 0.365873 0.929263 0.0510502 1
1301.23 880.128 1746.06 -0.000369048 -0.526107 -0.850418 1
1300.86 877.453 1746.15 0.785439 -0.240601 0.570261 1
1300.83 873.958 1747.11 -0.0109691 -0.341473 -0.939828 1
1299.62 902.104 1745.65 -0.413899 0.668375 0.618031 1
1300.87 893.031 1748.12 0.19441 -0.709103 -0.677774 1
1298.19 909.84 1746.21 0.112895 -0.673012 0.730965 1
1295.07 901.402 1745.58 -0.73597 0.647334 -0.198261 1
1300.52 871.305 1746.79 0.765195 -0.531187 -0.363754 1
1300.48 870.715 1747.09 0.108527 0.403623 -0.908466 1
1300.63 874.913 1748.54 -0.463144 -0.289056 0.837821 1
1300.97 891.962 1747.47 -0.267493 0.779603 0.566275 1
1299.71 897.587 1749.69 0.650852 0.144695 0.745289 1
1295.83 897.018 1749.27 -0.962957 0.0877811 -0.254966 1
1301.11 877.49 1745.39 0.175474 0.797416 0.577353 1
1293.66 860.062 1746.73 0.183795 0.453997 0.871841 1
1297.3 882.953 1749.57 -0.0356492 -0.910521 0.411923 1
1300.19 896.945 1748.93 0.356988 0.377574 0.854399 1
1300.35 869.974 1746.93 -0.938956 0.076528 -0.335418 1
1297.82 888.824 1749.88 0.539553 0.827901 0.153172 1
1296.49 884.382 1746.99 -0.273287 0.83034 -0.485644 1
1296.48 870.586 1748.94 0.494514 0.836179 0.237194 1
1299.46 902.321 1748.5 -0.405725 0.784795 -0.468491 1
1300.12 896.688 1749 -0.955078 -0.202073 0.21678 1
1301.09 890.309 1747.38 -0.0839015 0.99562 0.0412398 1
1300.1 867.985 1745.37 -0.922604 -0.00430235 0.385725 1
1300.04 880.941 1749.61 -0.472358 -0.507562 -0.720596 1
1296.58 888.758 1745.8 -0.0263521 0.0739628 0.996913 1
1299.86 866.987 1746.15 0.950343 -0.232727 0.206607 1
1300.81 893.525 1747.86 -0.849088 -0.227206 0.476892 1
1301.06 890.615 1747.04 -0.156572 -0.985821 -0.0603458 1
1301.07 877.203 1747.37 -0.0145272 0.969177 -0.245937 1
1299.13 904.728 1745.72 -0.0934066 -0.835638 0.54128 1
1295.91 894.866 1747.42 -0.0229336 -0.483387 -0.875107 1
1301.27 884.764 1746.56 0.108711 0.594301 -0.796861 1
1293.5 908.938 1749.42 0.744439 -0.345295 -0.571474 1
1301.23 880.728 1747.05 -0.15658 -0.895651 -0.416284 1
1300.7 895.043 1746.68 -0.714436 -0.130223 0.687476 1
1299.97 867.537 1745.92 0.643478 -0.195731 -0.740017 1
1299.98 867.968 1745.46 0.747479 0.662181 -0.0528393 1
1300.64 874.168 1748.27 0.56306 -0.705417 0.430522 1
1300.86 891.801 1747.64 -0.616964 0.778744 -0.113635 1
1300.79 894.185 1747.41 -0.0445851 0.945753 -0.321812 1
1300.01 867.234 1745.78 0.0600564 -0.325777 -0.943537 1
1299.04 862.623 1746.83 -0.623875 -0.00934641 0.781468 1
1301.09 877.54 1747.21 -0.021645 -0.33119 0.943316 1
1297.72 888.72 1749.98 0.650559 -0.0187664 0.759224 1
1299.9 901.292 1745.59 0.69918 -0.647592 -0.302937 1
1300.53 871.384 1746.89 -0.878771 -0.434995 -0.196316 1
1301.2 879.571 1745.6 0.458724 0.239994 -0.855556 1
1296.38 891.84 1748.2 0.09793 -0.707521 0.699874 1
1301.1 888.663 1748.41 -0.0604071 -0.372423 -0.926095 1
1300.28 876.341 1748.92 0.616084 0.567452 -0.546295 1
1301.08 890.124 1747.36 -0.538767 -0.84194 -0.0294548 1
1296.5 890.551 1749.14 -0.047752 -0.127796 0.99065 1
1294.75 902.939 1749.15 -0.215992 0.216225 -0.952152 1
1299.91 901.117 1747.77 0.12064 0.443167 0.888284 1
1295.26 900.508 1745.53 0.0610495 -0.0303264 -0.997674 1
1293.46 908.8 1746.77 0.655691 0.408528 -0.63496 1
1300.48 870.645 1746.14 0.107364 0.522181 0.84605 1
1293.4 909.03 1746.44 0.830439 -0.444537 -0.335793 1
1293.38 909.08 1746.45 0.455688 0.874128 -0.168074 1
1295.97 894.355 1748.68 -0.698 0.145501 0.70116 1
1300.85 877.471 1746.04 0.817097 0.296065 0.49467 1
1301.28 881.98 1745.99 -0.0395747 -0.882126 0.469348 1
1301.12 885.981 1748.52 0.589388 -0.676269 -0.441907 1
1301.22 886.791 1747.89 0.371085 -0.723993 0.58149 1
1299.22 862.992 1747.09 -0.716486 0.639439 0.278865 1
1300.19 897.043 1749.34 -0.141736 -0.937381 0.318163 1
1300.72 894.774 1747.5 -0.431668 -0.85635 0.283423 1
1299.06 862.427 1746.48 -0.0146785 0.111919 0.993609 1
1300.1 899.689 1748.24 -0.386413 0.135199 -0.912363 1
1300.68 895.193 1746.48 0.673699 -0.702991 -0.227889 1
1301.13 885.669 1748.56 -0.135146 0.827476 0.544994 1
1301 891.212 1747.61 -0.825085 0.562698 0.0510522 1
1298.74 907.099 1748.27 0.898128 -0.35628 -0.257742 1
1293.86 908.127 1745.78 0.429819 -0.902328 -0.0325452 1
1296.23 894.66 1745.37 0.0149814 -0.176938 0.984108 1
1299.91 901.248 1746.36 -0.345757 0.710948 0.612377 1
1299.6 900.664 1749 -0.279764 0.769603 0.573972 1
1300.63 895.974 1745.9 -0.12933 0.53507 -0.834849 1
1300.25 898.569 1748.04 -0.595277 -0.802839 -0.0330884 1
1301.23 884.956 1747.93 -0.743115 -0.406405 0.531616 1
1301.01 891.293 1747.69 -0.396183 -0.0304509 -0.917666 1
1300.77 891.53 1747.4 -0.830162 -0.205753 -0.518167 1
1300.41 880.779 1749.32 -0.185561 -0.809782 0.556615 1
1301.2 887.85 1747.21 0.18677 0.963302 0.192786 1
1300.61 892.995 1748.18 0.171046 -0.15082 -0.973651 1
1301.03 880.696 1747.23 -0.143573 -0.798242 0.584975 1
1301.09 877.667 1747.54 -0.355462 -0.913194 0.199308 1
1299.79 867.226 1748.07 0.202072 -0.959545 0.19606 1
1299.12 863.192 1747.78 0.919996 0.349588 0.177185 1
1300.99 876.453 1747.3 -0.815075 -0.316802 0.485067 1
1300.52 895.639 1745.38 0.569029 -0.682528 -0.458651 1
1299.97 898.468 1749.31 -0.406542 0.712847 0.571465 1
1301.28 885.448 1746.15 0.00733483 -0.757948 0.652274 1
1301.13 878.417 1745.6 -0.862958 -0.105364 0.494167 1
1294.99 901.746 1745.6 -0.291292 -0.952825 -0.0852855 1
1300.94 891.988 1747.45 0.43376 0.0799084 0.897478 1
1300.02 867.521 1745.67 -0.761098 0.233666 -0.605087 1
1294.78 905.472 1750.13 -0.22331 -0.609149 0.760966 1
1300.28 897.777 1748.86 -0.588163 -0.711838 -0.383863 1
1301.24 883.791 1747.55 0.860138 -0.306268 -0.407876 1
1300.96 892.029 1746.7 0.454599 0.890256 0.0280056 1
1301.1 889.488 1746.78 -0.921469 0.382847 0.0657554 1
1300.36 870.07 1746.82 0.642559 0.421288 0.640026 1
1299.38 863.717 1746.54 -0.629325 0.223848 -0.744205 1
1299.93 866.872 1746.74 0.507637 -0.848104 0.151735 1
1295.92 895.475 1747.22 0.256222 -0.41785 -0.871637 1
1295.31 901.349 1745.64 0.588024 0.48784 0.645167 1
1299.04 862.6 1746.69 -0.718514 -0.0083094 0.695463 1
1301.01 890.816 1747.94 -0.913148 -0.315485 0.258128 1
1300.88 881.239 1748.86 0.401642 0.43087 0.808105 1
1300.22 883.255 1749.42 -0.347805 0.866539 -0.35797 1
1295.1 900.445 1747.77 0.357394 -0.529623 -0.769265 1
1299.62 897.376 1749.66 -0.609516 -0.630525 0.480551 1
1300.83 879.346 1748.78 -0.166914 -0.288802 -0.942727 1
1301.01 875.969 1745.36 0.00599695 -0.569086 -0.822256 1
1300.74 873.187 1746.96 0.413006 0.773692 0.480444 1
1301.16 879.71 1747.56 -0.779061 -0.0109405 0.626853 1
1300.1 867.837 1746.06 0.190877 0.916537 0.351463 1
1295.91 868.495 1748.38 0.989816 -0.140204 0.0246346 1
1301.09 877.515 1746.07 0.463913 -0.853527 0.237226 1
1301.06 890.341 1747.86 -0.356599 -0.739047 -0.571531 1
1299.72 902.214 1748.38 -0.107802 0.707449 0.698495 1
1301.01 884.751 1748.8 0.677553 0.660486 0.323543 1
1299.87 901.156 1748.61 0.251704 -0.200048 0.946903 1
1300.88 874.881 1747.33 0.863546 0.500943 -0.0578316 1
1301.02 876.635 1747.74 0.173019 0.625281 -0.760979 1
1301.24 887.291 1745.96 -0.0023841 -0.127275 0.991865 1
1296.28 892.672 1747.37 0.605204 -0.316411 0.730488 1
1298.92 862.182 1745.62 0.480864 0.873529 -0.0756179 1
1300.77 873.543 1747.63 0.104764 0.711029 -0.695315 1
1295.99 894.887 1747.26 0.122422 -0.913817 0.387236 1
1301.05 885.916 1748.56 -0.297845 0.485888 0.821706 1
1301.21 880.449 1745.78 -0.720691 -0.179928 -0.6695 1
1300.9 892.628 1748.06 -0.19981 -0.978618 0.0488116 1
1296 893.717 1748.66 -0.162423 -0.56289 -0.810415 1
1300.56 896.068 1748.24 0.61175 0.333027 0.717534 1
1300.95 875.365 1746.66 0.1456 0.733475 -0.66394 1
1300.9 875.525 1747.21 0.903947 -0.108745 0.413587 1
1301.27 884.022 1747.69 -0.00457987 0.840454 0.541863 1
1300.87 882.911 1749.03 0.483943 0.654744 -0.580611 1
1301.12 887.689 1747.13 -0.986317 -0.0222111 -0.163359 1
1295.13 902.181 1749.61 -0.64657 -0.176531 0.742148 1
1300.21 876.458 1749.16 0.896868 0.337394 -0.285995 1
1300.01 867.643 1747.65 -0.0443126 0.766891 0.640245 1
1299.08 862.128 1745.56 0.274272 -0.706441 0.652469 1
1301.23 881.178 1746.26 0.546494 -0.477657 -0.687886 1
1300.92 874.92 1746.06 -0.0949424 -0.157984 0.982867 1
1301.23 881.092 1745.66 0.97361 -0.157901 0.164774 1
1294.39 904.323 1748.72 0.0793799 -0.592336 -0.801771 1
1301.03 876.695 1747.71 0.0661953 0.984867 -0.160172 1
1299.82 876.46 1749.39 -0.855031 0.0186048 0.518243 1
1296.8 887.906 1749.33 0.340045 -0.839701 0.423405 1
1296.23 895.177 1745.31 -0.771986 0.173416 0.611527 1
1300.75 872.959 1745.62 0.0188648 0.437311 0.899112 1
1300.68 894.96 1747.45 -0.874528 0.297769 0.382798 1
1300.46 873.191 1748.47 -0.378893 -0.377617 0.844894 1
1301.28 885.174 1746.18 0.0935496 -0.867136 -0.489207 1
1296.63 884.664 1747.45 0.567619 -0.52512 0.634081 1
1300.76 892.055 1748.09 0.0435018 -0.306958 -0.950728 1
1301.1 881.602 1748.39 0.812515 0.240649 -0.530949 1
1300.68 883.058 1749.27 0.878571 -0.0351887 -0.476314 1
1301.09 887.947 1747.78 -0.632793 0.0440757 0.773066 1
1301.29 884.399 1746.44 0.0713058 -0.891541 -0.447291 1
1293.63 909.46 1745.86 0.0303758 0.288128 -0.95711 1
1301.1 887.109 1747.95 -0.844005 -0.0693105 -0.531838 1
1301.05 890.209 1747.46 0.828561 -0.0839087 -0.553576 1
1301.1 890.188 1747.06 -0.0737538 0.934051 -0.349442 1
1301.23 885.99 1747.7 -0.726982 0.198662 -0.657291 1
1298.72 860.426 1746.64 -0.200204 -0.834159 0.513905 1
1299.76 897.449 1749.66 -0.473852 -0.163654 0.865264 1
1300.79 873.489 1745.96 -0.0732144 -0.329369 0.941358 1
1300.28 871.725 1748.4 -0.868692 -0.09014 -0.487083 1
1300.96 890.905 1748.39 0.965742 -0.252045 -0.0617741 1
1301.23 881.297 1747.68 -0.195099 0.920316 0.339049 1
1300.7 892.551 1749.01 0.56505 -0.796003 0.217021 1
1301.2 879.623 1746.69 -0.059764 0.357974 0.931817 1
1298.79 860.944 1747.22 -0.262911 0.343469 -0.901613 1
1300.05 881.661 1749.42 0.779074 0.322291 -0.537747 1
1300.85 877.437 1746.19 -0.905095 -0.130109 0.404814 1
1300.95 880.719 1747.33 0.478452 -0.838466 0.26088 1
1300.32 882.192 1749.24 -0.0417415 -0.946989 0.318543 1
1299.86 901.425 1746.49 -0.545388 -0.0868716 -0.83367 1
1299.48 864.206 1746.69 0.170015 -0.395615 0.902543 1
1301.17 889.193 1745.47 0.288378 0.852947 0.435108 1
1300.52 896.948 1745.88 -0.159747 0.98019 -0.117086 1
1300.32 873.286 1748.37 -0.588352 -0.694028 0.414931 1
1293.5 908.641 1746.72 0.954547 -0.239465 0.177474 1
1300.27 883.089 1749.63 -0.103068 -0.0949798 -0.990129 1
1300.4 870.088 1746.88 0.364202 0.0432316 0.930316 1
1299.84 871.864 1748.68 -0.573627 0.185922 0.797738 1
1296.58 888.72 1746.2 0.0203978 -0.334874 -0.942042 1
1293.26 909.48 1747.3 0.307365 0.919226 -0.246071 1
1300.86 892.991 1748.13 0.54691 0.219976 -0.807774 1
1300.16 869.353 1748.02 0.274288 -0.512704 -0.813573 1
1297.21 906.773 1750.84 0.105288 -0.760808 0.640379 1
1299.95 897.317 1749.62 -0.652461 -0.0223815 -0.757491 1
1300.81 892.734 1748.71 0.215187 0.570687 -0.792471 1
1300.66 874.456 1747.35 0.064518 0.312099 0.947856 1
1300.72 894.696 1748.09 0.0839327 -0.182039 0.979702 1
1301.28 884.309 1746.64 -0.0506578 0.0832859 0.995237 1
1301.22 882.199 1748.09 -0.104875 -0.98224 -0.155581 1
1299.31 863.693 1747.49 -0.706952 -0.487547 -0.512363 1
1300.29 869.307 1747.39 0.093413 0.986911 -0.131452 1
1301.21 879.821 1745.79 -0.204213 -0.845613 0.49319 1
1293.68 907.722 1748.21 -0.762165 -0.062572 0.644352 1
1294.44 905.017 1749.45 -0.749155 -0.120139 -0.651409 1
1300.26 868.9 1745.66 -0.0435266 -0.372453 0.92703 1
1301.22 880.079 1745.94 0.0925793 0.664769 -0.74129 1
1300.95 876.133 1747.93 -0.0558149 0.953038 0.297662 1
1301.09 878.118 1747.32 0.695442 -0.661952 0.279606 1
1301.25 880.81 1746.19 0.0108095 -0.447744 -0.894096 1
1296.05 892.929 1746.86 -0.541929 0.838748 -0.0530615 1
1299.79 899.081 1749.06 0.415151 -0.623936 -0.662083 1
1300.64 895.758 1746.67 0.081285 0.990055 -0.11482 1
1296.49 907.842 1751 -0.444086 0.572046 0.689602 1
1299.89 872.113 1749 0.230774 0.434601 0.870554 1
1293.33 909.12 1747.59 0.324596 -0.0606927 -0.943904 1
1301.22 887.364 1746.97 -0.0242794 0.463744 0.885636 1
1300.83 874.062 1747.55 -0.0485119 -0.997846 0.0441681 1
1300.95 879.787 1748.54 0.92167 0.366833 0.126328 1
1300.65 874.129 1748.32 0.36753 0.249671 -0.895872 1
1301.23 882.338 1748.04 0.101977 0.907318 -0.407891 1
1301.1 877.397 1745.83 -0.0691928 -0.995601 0.063174 1
1296.36 860.962 1749.3 -0.985676 -0.164825 -0.0357213 1
1301.23 882.287 1747.38 0.740861 0.528308 -0.414747 1
1298.93 906.288 1748.03 0.455382 0.171338 0.873653 1
1300.74 873.026 1747.08 0.0291122 -0.233168 0.972 1
1300.06 900.074 1748.3 0.122466 -0.436817 0.891175 1
1300.9 892.348 1747.6 0.347721 0.373361 -0.860053 1
1301.16 887.454 1747.78 0.999391 -0.0193019 0.0290684 1
1294.85 904.271 1745.65 -0.871757 0.32401 -0.3675 1
1299.73 867.006 1746.03 0.542727 0.784802 0.29922 1
1295.85 895.07 1745.31 0.0565889 -0.485812 0.87223 1
1295.86 863.093 1749.2 -0.890329 -0.0470461 -0.45288 1
1301.17 879.958 1747.7 -0.852863 0.45603 -0.254286 1
1301.27 884.013 1747.37 -0.00592954 -0.120777 -0.992662 1
1301.13 888.166 1748.34 -0.270522 0.103254 0.957161 1
1299.83 867.244 1745.99 0.623228 -0.778055 -0.0788488 1
1301.09 879.447 1748.09 0.822513 -0.568223 0.0243737 1
1300.83 877.454 1746.36 -0.0822163 -0.676312 0.732012 1
1300.37 897.151 1748.29 0.799771 0.247013 -0.54713 1
1300.53 894.474 1748.35 -0.289098 0.95392 0.0803661 1
1301.05 890.572 1746.67 0.882437 -0.469563 0.0285549 1
1300.29 896.718 1748.96 -0.648 0.446399 -0.617109 1
1295.89 894.99 1747.45 -0.160804 -0.923013 -0.349557 1
1301.06 884.755 1748.75 -0.0629117 -0.976063 0.208192 1
1301.03 888.073 1748.68 0.259431 -0.460088 0.849126 1
1300.86 877.422 1746.37 -0.731371 0.0718989 0.678179 1
1301.15 888.659 1747.47 0.330525 -0.93543 0.125394 1
1301.03 877.553 1746.07 -0.979507 0.199783 0.0255565 1
1300.48 870.688 1746.8 0.178953 0.228104 0.95705 1
1300.17 882.782 1749.67 0.98238 0.127502 0.136649 1
1297.88 888.961 1750.21 -0.708396 0.658468 -0.254157 1
1300.03 900.291 1747.97 -0.0843837 -0.691583 -0.717351 1
1300.86 878.154 1748.61 0.280969 0.743252 -0.607152 1
1300.98 885.336 1748.45 -0.320109 0.627476 -0.709792 1
1301.15 878.444 1746.52 0.119331 0.091875 -0.988595 1
1300.45 880.167 1749.36 0.612715 -0.581195 -0.53553 1
1301.08 877.3 1746.71 -0.204287 -0.00431588 -0.978902 1
1296.59 884.653 1747.42 -0.58153 -0.809646 -0.0793534 1
1301.25 885.399 1747.09 -0.597195 0.0669305 0.799299 1
1300.21 881.071 1749.62 -0.825182 0.230249 0.51581 1
1296.3 892.838 1746.74 -0.170966 -0.971458 -0.164439 1
1300.93 875.988 1747.79 0.902832 0.362313 0.231569 1
1300.26 880.667 1749.55 0.109087 0.993794 -0.0217612 1
1301.09 889.69 1747.91 0.461333 0.424725 0.778961 1
1296.03 894.639 1745.31 -0.231911 0.16861 -0.958012 1
1295.8 869.017 1748.24 -0.165393 -0.743675 0.647759 1
1300.55 895.541 1748.2 0.837927 0.368158 -0.402911 1
1299.97 867.646 1747.68 -0.705483 -0.708723 0.00220579 1
1299.99 868.569 1748.16 0.374897 0.273519 -0.885799 1
1301.05 876.646 1746.08 0.0857345 0.984196 -0.154942 1
1293.52 909.038 1749.59 0.593038 -0.767109 -0.244643 1
1300.38 896.27 1745.42 0.185346 0.0261148 0.982326 1
1299.83 867.228 1745.95 0.448832 -0.393599 0.802265 1
1300.89 875.031 1746.67 0.578416 -0.79781 0.170101 1
1300.51 871.014 1746.07 -0.461649 0.70412 0.539533 1
1298.15 909.625 1745.98 0.27988 0.891036 0.357383 1
1299.31 902.251 1749.12 -0.393556 0.157439 0.905719 1
1295.76 895.883 1745.34 -0.0253304 0.289905 -0.95672 1
1301.12 890.151 1745.5 0.16414 -0.745526 0.645948 1
1299.07 862.493 1746.91 -0.803846 -0.410887 0.43012 1
1301.07 890.38 1746.69 -0.678504 -0.340549 0.650891 1
1299.98 900.425 1748.3 0.509885 0.859363 -0.0388896 1
1301.19 888.452 1746.6 -0.0575787 -0.708749 0.703107 1
1300.91 874.723 1745.81 -0.00756471 0.0211337 -0.999748 1
1300.75 873.179 1746.64 -0.181906 0.870795 0.456757 1
1301.11 890.278 1746.36 0.00308009 -0.93609 0.351747 1
1295.18 901.884 1745.66 -0.471412 -0.864073 -0.176493 1
1300.21 870.329 1745.78 0.290657 -0.582791 -0.758863 1
1298.99 862.439 1745.94 0.00530114 0.962048 -0.272828 1
1300.13 899.626 1747.79 -0.1523 0.417514 0.895816 1
1299.34 867.127 1748.72 0.301838 0.587085 0.751149 1
1301.06 885.279 1748.34 -0.530796 0.208136 0.821544 1
1300.32 880.735 1749.24 0.0880789 0.285758 -0.954245 1
1301.24 883.358 1747.46 0.709849 0.508276 0.487617 1
1300.07 869.533 1746.61 -0.174375 -0.802424 -0.570709 1
1300.69 874.648 1748.27 -0.757132 0.647536 0.0863033 1
1300.28 869.441 1746.49 0.901954 -0.262959 -0.342536 1
1300.17 898.433 1747.78 -0.0957869 0.673307 -0.733132 1
1300.84 893.936 1745.87 -0.109772 0.639213 0.761155 1
1299.55 902.382 1748.71 -0.503779 0.296966 -0.811183 1
1298.87 861.521 1747.57 0.338218 0.808554 -0.481506 1
1295.61 897.725 1745.41 -0.359757 -0.661752 0.657769 1
1294.44 861.218 1748.36 -0.573982 -0.525492 -0.628015 1
1300.82 884.657 1748.65 0.0839833 0.477098 -0.874828 1
